ply
format ascii 1.0
element vertex 1402
property float x
property float y
property float z
property uchar red
property uchar green
property uchar blue
end_header
0.5682 -0.8178 18.4546 153 153 153
0.9336 0.3511 7.0142 139 139 139
0.8445 0.5375 9.4942 109 109 109
0.6253 0.7787 15.9776 162 162 162
0.2467 0.9782 10.6056 114 114 114
-0.8907 0.4552 4.6102 125 125 125
-0.0235 0.9876 13.4237 115 115 115
-0.7676 -0.6228 1.0132 105 105 105
0.0071 0.9974 6.9634 143 143 143
0.6273 0.7471 14.2201 142 142 142
-0.5892 -0.8123 17.8609 116 116 116
-0.9887 -0.0966 1.9350 152 152 152
0.6674 0.7373 14.8145 104 104 104
-0.3891 -0.8928 18.8016 112 112 112
-0.7969 0.5481 12.5912 128 128 128
0.0134 -0.9928 16.6665 109 109 109
-1.0012 -0.0063 16.8121 143 143 143
-0.6024 0.8279 8.8815 102 102 102
0.2120 1.0087 18.5141 99 99 99
-0.0022 1.0095 1.8690 123 123 123
-0.9778 -0.1294 9.9683 126 126 126
-0.2811 0.9158 2.6186 118 118 118
-0.0708 0.9879 2.2607 122 122 122
-0.7973 0.6098 13.2366 97 97 97
-0.5759 0.8122 11.5727 102 102 102
-0.8744 -0.4997 12.7652 82 82 82
0.2704 0.9776 16.1947 134 134 134
0.9912 0.1356 3.7496 127 127 127
0.2260 -0.9645 4.2954 163 163 163
-0.4457 0.8732 2.3189 131 131 131
0.7206 -0.6807 6.1750 156 156 156
-0.9846 0.0833 7.5468 113 113 113
0.0542 -0.9899 13.7219 136 136 136
0.6225 0.8135 7.7208 119 119 119
0.3391 0.9525 0.9852 114 114 114
0.9066 -0.4405 16.8485 146 146 146
0.7752 -0.6627 8.4673 113 113 113
-0.9089 -0.4945 5.0499 131 131 131
-0.5659 0.7895 14.5205 117 117 117
0.9533 -0.2329 19.2584 105 105 105
-0.6822 -0.7214 15.6674 148 148 148
-0.7241 0.6544 5.4445 120 120 120
0.2714 0.9207 3.4119 141 141 141
0.3307 0.8988 2.3462 140 140 140
0.4817 0.8457 13.5276 142 142 142
0.5320 -0.8513 10.4870 118 118 118
0.0988 1.0160 15.0157 134 134 134
0.5292 -0.8692 0.0182 117 117 117
0.3473 -0.9542 7.0805 139 139 139
-1.0451 -0.0028 13.3452 173 173 173
-0.9031 0.4444 16.2917 131 131 131
0.9867 0.1559 14.9499 150 150 150
-0.8767 0.4921 8.2036 133 133 133
0.6296 0.7271 4.4359 156 156 156
-0.6669 -0.7030 0.1912 125 125 125
0.9422 -0.3836 4.2478 109 109 109
-0.9873 -0.1881 5.2235 115 115 115
-0.8176 -0.5672 5.3016 138 138 138
-0.0546 -1.0007 4.7746 153 153 153
0.7920 0.6350 8.7817 134 134 134
-0.7419 0.6762 19.4754 127 127 127
0.8896 0.4527 9.7334 145 145 145
0.3655 0.9348 1.2577 133 133 133
-0.5988 -0.7857 3.7092 163 163 163
0.7606 0.6522 0.1231 128 128 128
-0.6016 -0.7745 17.6836 140 140 140
0.3799 0.8854 1.5481 151 151 151
-0.1578 -0.9629 2.3199 139 139 139
0.7376 -0.6922 17.5338 191 191 191
-0.9829 -0.2095 16.5084 132 132 132
0.6965 -0.6567 3.9039 131 131 131
-0.8796 -0.5132 9.8379 107 107 107
0.2473 -0.9274 16.4426 97 97 97
0.4817 -0.8723 6.5788 124 124 124
-0.3764 0.9365 16.4579 97 97 97
0.8475 0.5214 2.5638 136 136 136
0.0608 0.9618 5.9445 157 157 157
-1.0072 0.0122 12.2228 103 103 103
-0.9581 -0.3273 0.0426 169 169 169
0.6247 -0.8107 9.6490 162 162 162
0.9810 -0.1020 8.8770 128 128 128
0.1784 -1.0029 4.6725 135 135 135
0.9722 -0.1484 16.0681 93 93 93
0.7846 -0.6129 12.7936 124 124 124
0.2573 -0.9877 14.2650 125 125 125
-0.9633 -0.2250 14.5911 120 120 120
0.0259 -1.0149 15.2174 118 118 118
-0.6234 -0.7821 2.3509 162 162 162
0.1066 0.9615 12.3203 80 80 80
0.4902 0.8813 8.6364 124 124 124
0.6963 -0.7305 10.4860 140 140 140
0.8424 -0.5016 16.1501 130 130 130
0.8720 -0.4727 4.3082 128 128 128
0.4208 -0.9305 13.4354 137 137 137
-0.0682 1.0112 11.9412 134 134 134
0.6342 -0.7654 13.1954 85 85 85
-0.9668 -0.3277 2.0991 110 110 110
-0.9122 -0.3128 0.9435 136 136 136
-0.3860 0.9099 18.7899 90 90 90
0.9781 -0.3022 8.9030 119 119 119
1.0119 0.0306 14.3434 118 118 118
0.6234 0.7811 19.5642 160 160 160
-0.7741 0.6531 15.3180 149 149 149
-0.3088 -0.9805 5.5100 128 128 128
-0.2508 0.9354 1.0451 125 125 125
-0.3739 0.9513 14.7975 131 131 131
0.5996 -0.7440 5.6904 153 153 153
-0.4055 0.9067 6.6693 132 132 132
-0.0384 -1.0388 6.7973 95 95 95
-0.9461 -0.2098 16.0601 124 124 124
0.2857 -1.0122 9.7634 148 148 148
0.0088 1.0012 15.6497 113 113 113
0.9659 0.3200 16.7767 138 138 138
0.9968 0.2232 6.1617 139 139 139
0.9279 -0.3594 15.6850 128 128 128
-0.2561 -0.9786 3.5300 95 95 95
0.9129 0.4673 19.8065 126 126 126
0.5816 0.8287 8.5622 212 212 212
0.1416 -0.9641 15.9208 106 106 106
-0.9881 0.2821 19.6271 104 104 104
-0.7171 0.6760 14.8445 127 127 127
-0.9262 0.4309 2.8983 112 112 112
-0.8880 0.4927 0.3866 104 104 104
-0.8250 0.6175 2.0417 133 133 133
-0.5090 -0.9042 9.1763 100 100 100
0.8781 0.4944 1.1730 128 128 128
0.0949 -0.9718 7.3923 159 159 159
0.5774 -0.8690 17.2399 103 103 103
0.9772 0.2188 9.5577 96 96 96
0.7560 0.6736 12.4841 126 126 126
-0.6703 0.7432 11.7668 103 103 103
0.7197 -0.6299 17.2866 163 163 163
-0.9574 0.3531 6.1588 131 131 131
-0.3873 0.9410 4.2858 141 141 141
-0.9981 0.0817 4.8900 133 133 133
-0.5321 -0.8421 11.5164 142 142 142
1.0095 0.0317 17.1184 117 117 117
0.2423 -0.9607 17.5853 85 85 85
0.3482 0.9650 10.4187 90 90 90
-0.4793 -0.8702 18.5087 146 146 146
-0.6196 0.8103 8.3870 93 93 93
-0.2219 1.0220 12.8686 80 80 80
-0.7266 0.6851 8.3963 174 174 174
-0.6819 -0.7311 9.2906 109 109 109
0.2683 -0.9405 15.7846 147 147 147
0.0874 0.9691 1.8773 105 105 105
-0.3350 -0.9392 4.8357 89 89 89
-0.9024 -0.4641 1.6269 149 149 149
-0.2249 -0.9945 18.1204 145 145 145
-0.6107 0.7967 14.0747 71 71 71
-0.9333 -0.3087 6.7672 154 154 154
1.0040 0.1388 10.2722 89 89 89
-0.6405 -0.7712 7.5355 133 133 133
-0.2996 0.9476 19.8852 141 141 141
-0.9046 -0.4197 16.3184 188 188 188
-0.8596 0.4783 11.4786 147 147 147
0.9708 0.2022 9.8021 101 101 101
-0.5916 -0.8174 14.0679 141 141 141
-0.5895 -0.8397 2.3121 99 99 99
-0.8614 0.4961 18.4776 102 102 102
0.9734 -0.2783 9.7272 86 86 86
0.9782 0.2709 11.3300 90 90 90
0.6595 -0.7066 17.0170 132 132 132
-0.5333 0.8614 8.4868 122 122 122
-0.0647 0.9621 3.0960 150 150 150
0.9600 -0.0542 5.4790 182 182 182
0.4543 -0.8953 0.7259 115 115 115
-0.0692 0.9995 3.9000 161 161 161
-0.8873 0.4248 4.0689 134 134 134
0.9509 0.3290 10.7924 111 111 111
-0.9923 0.0535 14.1519 137 137 137
-0.5522 0.8247 3.4700 125 125 125
-0.9412 -0.2517 6.3243 182 182 182
-0.2917 0.9688 10.5913 119 119 119
-0.8364 -0.5930 14.8239 136 136 136
0.3843 -0.9144 6.3515 132 132 132
-0.8303 0.5709 17.3116 101 101 101
0.9369 0.0621 12.5588 116 116 116
0.6552 0.7604 2.5735 100 100 100
0.9629 0.2113 9.1588 138 138 138
-0.4094 -0.8977 15.4031 99 99 99
-0.6438 0.7893 18.1342 102 102 102
-0.8421 0.5685 12.2553 147 147 147
-0.7374 0.6774 7.8890 150 150 150
0.3669 0.9273 14.6398 146 146 146
0.6238 0.7719 2.1948 149 149 149
0.8894 0.4832 14.4692 124 124 124
0.9613 -0.3043 7.8731 122 122 122
-0.0288 1.0355 14.5830 108 108 108
0.3530 -0.8983 6.2526 114 114 114
-0.7740 -0.6714 17.7986 116 116 116
-0.8072 -0.5758 2.8964 169 169 169
-0.9276 0.3641 1.6489 106 106 106
-0.4246 0.9401 11.1582 152 152 152
0.2447 0.9854 14.7515 133 133 133
0.7782 -0.5632 1.0842 151 151 151
0.0469 1.0166 17.3138 124 124 124
0.2859 0.9338 14.1170 103 103 103
1.0090 -0.1192 11.6915 95 95 95
0.3499 -0.9417 0.4284 92 92 92
-0.1792 1.0012 11.8043 119 119 119
-0.5071 0.8458 7.6436 138 138 138
0.8608 0.4715 7.7788 104 104 104
-0.6781 -0.7184 7.6601 125 125 125
-1.0010 0.0006 7.4783 178 178 178
-0.6682 -0.6825 11.3180 135 135 135
0.2240 0.9561 9.1169 148 148 148
0.0714 -0.9757 6.8847 111 111 111
0.2812 -0.9676 12.7521 119 119 119
0.2154 -0.9766 11.1128 138 138 138
-0.3670 -0.9073 12.2540 144 144 144
-0.8990 0.4230 14.3129 151 151 151
0.4544 -0.8882 10.2210 136 136 136
0.7525 0.6959 19.6788 101 101 101
-0.1208 0.9919 19.8441 102 102 102
0.8062 0.5531 15.2538 121 121 121
-0.9363 0.3651 3.0805 178 178 178
-0.7955 0.6029 4.1387 110 110 110
0.9306 -0.3494 10.4003 146 146 146
0.8705 0.4532 16.9671 171 171 171
-0.7932 0.5708 15.9025 109 109 109
-0.8232 0.5784 4.6572 142 142 142
-0.9416 0.3797 0.4534 106 106 106
0.5988 -0.8159 17.4910 123 123 123
0.5006 0.8763 13.4707 116 116 116
-0.6956 0.6706 19.0456 78 78 78
0.7064 -0.6821 17.1533 124 124 124
-0.3174 0.9613 17.6979 177 177 177
0.8257 -0.6190 17.2315 148 148 148
-0.3738 -0.8975 18.7854 154 154 154
0.9781 0.2765 9.1567 171 171 171
0.1080 0.9723 0.5769 135 135 135
0.8676 -0.4775 5.2346 77 77 77
-0.8466 0.5042 16.2192 171 171 171
0.9591 -0.2053 19.5089 108 108 108
-0.5650 0.8385 4.4967 162 162 162
-0.9376 -0.3849 3.5410 129 129 129
0.4067 -0.8628 9.6539 112 112 112
-0.9370 0.2811 12.6191 139 139 139
-0.2583 -0.9636 8.4395 132 132 132
-0.0278 0.9920 8.8799 140 140 140
0.6775 0.7484 17.8624 122 122 122
0.7702 0.6622 8.6112 150 150 150
-0.2868 0.9659 9.4408 107 107 107
-0.4078 0.9197 16.1139 137 137 137
-0.0455 -1.0004 17.1453 173 173 173
0.4550 -0.9064 3.7501 124 124 124
-0.9688 0.1432 12.9100 116 116 116
-0.4387 -0.8727 11.6260 116 116 116
-0.6682 0.7414 6.2006 113 113 113
0.7422 0.6464 3.1985 157 157 157
-0.7268 0.6944 14.8583 102 102 102
0.7490 0.6375 11.7959 171 171 171
0.1512 -1.0172 9.6534 142 142 142
-0.9936 -0.2584 0.3593 151 151 151
0.6848 0.7186 7.1121 116 116 116
0.8153 -0.5580 4.0202 164 164 164
-0.9814 -0.2664 9.2814 123 123 123
-0.8662 0.4944 18.8937 91 91 91
-0.9911 0.0842 8.7591 94 94 94
-0.0084 -1.0053 19.6582 159 159 159
-0.9390 -0.3140 3.2993 118 118 118
-0.9796 0.1222 7.3181 143 143 143
-0.3759 -0.9171 19.3525 115 115 115
-0.5993 0.8019 18.4209 111 111 111
-1.0123 -0.0384 19.6772 158 158 158
0.2019 0.9834 18.1087 79 79 79
-0.9306 0.3071 12.8486 178 178 178
0.7114 0.7104 15.6218 127 127 127
-0.3649 0.9649 13.9179 139 139 139
-0.9668 -0.0796 5.9637 185 185 185
0.4176 0.9311 7.0329 123 123 123
0.8491 -0.4922 13.4819 94 94 94
-0.8770 -0.4733 13.1375 94 94 94
-0.9579 0.2834 2.3525 113 113 113
0.9684 -0.2243 17.0336 167 167 167
0.3393 -0.9257 18.6378 130 130 130
0.3115 -0.9743 15.4719 91 91 91
-0.8600 0.4466 17.2727 128 128 128
-0.9167 0.4115 12.0085 77 77 77
-0.2529 -0.9821 3.5198 96 96 96
0.7621 -0.6766 0.6947 133 133 133
0.2240 1.0126 2.7577 116 116 116
0.3178 0.9732 9.7308 119 119 119
1.0014 -0.0045 14.0630 123 123 123
0.7863 -0.6741 15.8339 106 106 106
0.9741 -0.2521 2.7108 141 141 141
0.8390 -0.5318 0.1628 156 156 156
-0.9178 0.4162 17.4058 102 102 102
-0.8781 -0.5148 7.6455 138 138 138
0.6694 -0.7723 7.3845 103 103 103
0.6437 0.7763 11.0963 98 98 98
-1.0183 -0.1096 0.8192 131 131 131
0.5301 -0.8483 7.2093 131 131 131
0.7494 0.6696 16.4822 106 106 106
0.3644 -0.9482 14.9851 124 124 124
-0.8930 0.4220 10.6331 166 166 166
1.0105 -0.0955 15.9796 82 82 82
-0.3676 -0.9464 13.4690 121 121 121
0.9422 -0.4453 2.0912 103 103 103
0.8186 -0.5749 4.9267 100 100 100
0.9334 0.1105 1.8884 121 121 121
1.0135 -0.0017 5.9683 117 117 117
0.6971 -0.6805 3.0171 134 134 134
-0.9358 0.4321 11.2241 125 125 125
0.7486 0.5922 11.1406 99 99 99
-0.9138 0.5357 9.6075 131 131 131
-0.5374 -0.8663 7.3954 205 205 205
0.7543 -0.6546 2.7552 97 97 97
-0.5420 0.8258 12.1802 135 135 135
-0.9746 -0.1098 6.9225 111 111 111
-0.7789 0.6282 12.7385 92 92 92
-0.9968 -0.0955 3.0120 141 141 141
-0.3889 0.9402 5.8483 154 154 154
0.0648 0.9945 6.9751 147 147 147
0.4257 0.9127 14.3188 169 169 169
-0.6542 -0.7366 1.3051 151 151 151
-0.8964 -0.5351 1.9926 128 128 128
0.2585 0.9921 11.7949 131 131 131
0.4501 0.9019 9.1651 140 140 140
-0.8794 -0.4822 18.7419 148 148 148
-0.1579 1.0021 11.6265 79 79 79
-0.2266 0.9580 0.3643 117 117 117
-0.7521 0.6644 2.3699 73 73 73
0.5369 -0.8604 10.8752 118 118 118
-0.6166 -0.8104 12.9177 136 136 136
0.9870 -0.1509 8.9133 184 184 184
0.1667 -0.9779 1.4975 149 149 149
0.8151 0.5629 6.9793 166 166 166
-0.8133 -0.5900 7.5156 92 92 92
-0.5040 -0.8432 10.2729 139 139 139
-0.6279 0.7520 13.8177 123 123 123
-0.5938 -0.8076 5.8508 135 135 135
0.7034 0.7018 2.4701 142 142 142
-0.9781 0.1092 7.1833 108 108 108
-0.2563 1.0242 18.0453 120 120 120
-0.5846 -0.7660 6.4049 100 100 100
0.4781 -0.8576 10.2562 132 132 132
-0.9903 0.0550 11.2348 106 106 106
-0.9672 0.1450 4.3303 140 140 140
-1.0119 -0.0445 15.6520 171 171 171
-0.0098 -0.9781 13.4481 125 125 125
0.4967 -0.8422 2.7061 134 134 134
0.3961 -0.9094 13.9386 119 119 119
-0.8429 0.5298 17.1434 114 114 114
-0.5944 -0.8465 10.6910 108 108 108
-0.6501 -0.7526 12.6284 134 134 134
0.9765 -0.2150 19.7105 125 125 125
1.0300 -0.1993 1.3952 149 149 149
-0.1171 0.9920 13.2185 103 103 103
-0.0198 0.9574 2.2123 120 120 120
0.6457 0.7652 1.2270 113 113 113
0.7642 0.6393 14.0857 149 149 149
-0.7441 -0.6692 4.6134 83 83 83
0.4063 -0.9276 4.8915 94 94 94
0.9708 -0.2050 7.1505 91 91 91
-0.7868 -0.6545 3.6021 152 152 152
-0.5756 -0.8088 15.2126 118 118 118
0.7116 0.6910 17.7605 110 110 110
0.3868 -0.9293 0.8598 148 148 148
-0.9332 -0.3657 7.3366 160 160 160
0.0183 -0.9833 10.3532 113 113 113
-1.0012 -0.3004 10.9730 108 108 108
-0.9421 -0.1710 19.7721 130 130 130
-0.9145 0.4923 12.3041 100 100 100
-0.3092 -0.9532 11.7701 151 151 151
-0.7535 0.5987 11.5385 136 136 136
0.1431 -0.9897 17.2975 166 166 166
-0.9194 0.4138 19.9299 142 142 142
-0.1627 0.9910 4.9211 161 161 161
0.7457 0.6619 4.7486 117 117 117
0.6807 -0.6739 14.1324 135 135 135
0.9461 -0.3099 13.9064 162 162 162
0.7540 -0.6594 1.1951 138 138 138
0.6355 -0.7944 7.9047 123 123 123
-0.7858 -0.6252 4.1633 176 176 176
-1.0167 -0.0312 10.2178 139 139 139
0.9112 0.3646 0.6260 114 114 114
0.4822 -0.8752 0.6706 123 123 123
-0.4964 -0.8818 15.1617 147 147 147
0.2963 -0.9178 12.8622 96 96 96
0.0102 1.0337 18.6824 129 129 129
0.0972 -0.9758 1.1163 146 146 146
-0.9282 0.4017 7.7120 158 158 158
1.0172 -0.0005 7.7817 124 124 124
0.2328 -0.9554 15.6696 127 127 127
0.6731 0.6921 15.7433 168 168 168
0.0949 -1.0023 3.3724 136 136 136
0.9800 0.0732 19.3437 155 155 155
-0.6188 0.7648 8.3769 90 90 90
-0.2276 -1.0029 3.0183 137 137 137
-0.8116 -0.5241 13.3985 138 138 138
0.9697 0.0106 8.3581 148 148 148
0.9684 0.2948 6.7993 163 163 163
-0.8134 0.5487 0.2007 154 154 154
1.0242 0.0827 1.5980 164 164 164
0.9225 -0.2908 3.6775 134 134 134
-0.0069 -1.0199 3.3410 111 111 111
0.7746 -0.6050 4.2212 113 113 113
0.5990 -0.8025 17.0823 127 127 127
-0.1484 -0.9529 11.7142 125 125 125
-0.1264 -0.9531 15.7080 124 124 124
-0.2203 -0.9517 1.8525 105 105 105
0.6162 -0.7797 18.7265 97 97 97
-0.1546 0.9687 6.2268 111 111 111
-0.4001 0.9506 10.9266 118 118 118
0.9582 0.3185 0.4190 143 143 143
-0.8168 0.5493 11.1348 140 140 140
0.9786 0.0210 10.5741 96 96 96
-1.0356 -0.0690 12.9528 152 152 152
0.1093 0.9625 11.4466 133 133 133
0.0026 0.9904 12.1847 122 122 122
-0.9849 -0.0675 11.8253 104 104 104
0.3923 -0.9226 4.3615 160 160 160
-0.2273 0.9738 13.3043 140 140 140
-0.3076 0.9770 15.2731 113 113 113
0.9777 0.2195 3.6454 165 165 165
-0.8736 0.4751 15.9434 163 163 163
0.7823 -0.6561 4.2204 105 105 105
0.9211 0.3563 2.3624 145 145 145
0.0760 1.0488 14.7954 111 111 111
0.0777 0.9894 19.2547 82 82 82
-0.1741 0.9581 15.2131 151 151 151
-0.7262 0.7149 10.8854 89 89 89
-0.9522 0.3174 12.3660 114 114 114
-1.0035 0.0011 13.7262 132 132 132
-0.3083 -0.9478 9.4806 159 159 159
-0.6877 0.6975 16.9182 146 146 146
0.1451 1.0000 14.2538 164 164 164
-0.9600 0.2070 11.1019 121 121 121
-0.5413 -0.8239 3.3254 124 124 124
-0.8431 -0.5735 5.5268 116 116 116
0.4571 0.9166 17.8707 112 112 112
0.7909 -0.6022 6.0206 159 159 159
0.9983 0.1315 2.1016 112 112 112
0.4218 -0.8974 12.5568 113 113 113
-0.4840 0.8446 18.8096 142 142 142
-0.3782 0.9308 16.7141 92 92 92
-0.5942 -0.8092 12.7007 122 122 122
0.7816 -0.6173 13.3542 101 101 101
0.1886 -0.9929 0.4410 113 113 113
0.7315 0.6830 1.4504 122 122 122
0.5941 0.7794 16.4235 127 127 127
0.9787 0.0877 1.4064 133 133 133
0.9828 -0.2435 15.2652 149 149 149
-0.0528 1.0119 7.3942 142 142 142
0.0403 -1.0118 11.7102 127 127 127
-0.3675 0.9244 12.8130 164 164 164
-0.5350 -0.8343 8.0026 107 107 107
-0.9949 -0.1716 5.2956 176 176 176
0.9774 0.2355 19.7456 112 112 112
-0.9500 0.2946 9.8815 83 83 83
0.7683 0.5571 15.1176 171 171 171
-0.8161 -0.5981 14.9232 162 162 162
0.5371 -0.8105 13.5949 119 119 119
-0.1273 -0.9777 10.1064 146 146 146
-0.8086 0.6249 11.3312 151 151 151
-0.5574 0.8445 19.3219 149 149 149
0.8557 -0.5324 0.8919 119 119 119
-0.9438 -0.2733 3.5198 90 90 90
0.0223 1.0113 14.0229 97 97 97
0.1845 -0.9717 3.0140 117 117 117
-0.3106 -0.9631 10.5508 138 138 138
-0.9742 0.2132 10.7020 143 143 143
-0.0914 -1.0083 11.7618 106 106 106
-0.8890 0.4296 1.6190 186 186 186
0.8337 0.5517 8.6566 110 110 110
0.2252 -0.9738 14.2822 136 136 136
0.8583 -0.4493 13.2843 172 172 172
0.7503 0.6610 2.0763 112 112 112
0.4113 0.9244 4.0928 104 104 104
-0.8545 0.5674 1.2090 153 153 153
0.6901 -0.7824 5.7958 159 159 159
-0.9860 0.2583 18.9866 122 122 122
-0.2211 -0.9652 0.0719 165 165 165
-0.4550 0.8618 4.1331 176 176 176
0.5431 -0.8869 12.1596 89 89 89
-0.5041 0.8565 5.1383 124 124 124
0.7814 0.6078 10.7211 100 100 100
-0.3095 0.9392 16.1319 165 165 165
0.9016 -0.3737 4.1689 141 141 141
-0.7194 -0.6690 4.3142 141 141 141
0.5563 0.8272 14.0932 113 113 113
-0.7137 -0.6784 1.2604 138 138 138
0.0358 1.0024 14.5504 139 139 139
-1.0037 -0.0728 10.9313 158 158 158
-0.8128 -0.5934 0.5069 152 152 152
0.9841 0.2856 1.5757 172 172 172
0.8960 -0.4236 7.4792 117 117 117
-0.3789 0.9032 12.5438 167 167 167
0.9373 0.4141 7.2597 146 146 146
0.2999 -0.9432 16.8765 123 123 123
0.0400 0.9854 9.9253 139 139 139
-0.8767 -0.4654 17.7468 100 100 100
0.9188 -0.3770 15.4468 95 95 95
-1.0256 -0.0713 14.6792 106 106 106
0.1094 -0.9809 11.1524 108 108 108
-0.7886 0.6054 2.8952 147 147 147
0.8395 0.6287 12.5361 101 101 101
0.5274 0.8271 5.6766 100 100 100
-0.9785 -0.1069 17.0947 99 99 99
-0.8272 -0.5974 14.3323 69 69 69
0.2520 -0.9637 11.8373 163 163 163
-0.9851 0.0196 2.0892 99 99 99
-0.2607 -0.9866 9.6593 82 82 82
0.9597 -0.3460 14.4619 123 123 123
-0.9416 0.3640 14.6671 130 130 130
-0.8939 0.3868 14.0201 122 122 122
-0.5519 -0.8406 10.6958 109 109 109
-0.9925 0.1394 18.7853 142 142 142
0.4238 0.8943 3.9948 99 99 99
-0.3903 -0.9262 13.4379 126 126 126
0.3304 0.9386 3.1311 175 175 175
0.7352 0.7106 9.5905 120 120 120
-0.9376 -0.3387 19.1724 161 161 161
0.3250 0.9642 8.2026 117 117 117
1.0092 -0.0222 1.9151 119 119 119
-0.5772 -0.8034 7.6977 162 162 162
0.8907 -0.4491 10.3178 145 145 145
0.2677 -0.9333 3.9017 135 135 135
0.8035 0.6024 18.5570 93 93 93
-0.7648 0.6222 13.7452 145 145 145
0.7541 0.6917 13.2870 153 153 153
0.9343 0.3167 1.0338 141 141 141
-0.8935 0.4645 4.7401 132 132 132
-0.9866 0.2349 14.5283 133 133 133
-0.9286 -0.3739 11.9484 150 150 150
0.4228 -0.8925 3.2498 147 147 147
0.5640 0.8140 7.1541 128 128 128
-0.2627 -0.9644 13.3390 110 110 110
0.0946 0.9894 3.1633 131 131 131
0.8598 0.5149 2.0176 144 144 144
-0.8574 0.5847 2.8199 127 127 127
0.6176 0.7488 19.6753 122 122 122
-0.7576 -0.6255 8.1404 133 133 133
0.9407 -0.1079 12.6218 99 99 99
-0.4999 0.8556 2.9415 140 140 140
-0.9240 -0.3983 4.7929 108 108 108
-0.1470 -0.9804 8.2368 138 138 138
-0.5885 0.8315 14.0391 131 131 131
-0.9247 0.4171 18.1869 167 167 167
1.0046 -0.1768 13.5296 136 136 136
0.8249 0.5154 13.6099 85 85 85
0.8769 -0.4893 1.4036 104 104 104
1.0021 -0.2652 10.7711 109 109 109
0.9936 0.2375 15.6603 180 180 180
-1.0031 -0.0851 0.2708 82 82 82
0.9707 0.1504 1.1835 113 113 113
0.8783 -0.3847 16.2219 163 163 163
0.8172 -0.5957 9.9184 107 107 107
0.9378 0.3558 5.1139 86 86 86
0.6238 -0.7784 15.7574 112 112 112
-0.9948 -0.2050 19.3895 124 124 124
0.9859 0.0351 8.2230 176 176 176
-0.7384 0.6387 2.5007 159 159 159
-0.5986 0.8084 12.0545 118 118 118
0.9367 -0.3660 10.6492 126 126 126
-0.4476 0.9023 3.8392 113 113 113
0.3531 -0.9427 2.0541 133 133 133
0.9298 0.2437 0.0295 131 131 131
-0.5921 0.7945 10.2056 165 165 165
0.7406 0.6852 11.1842 101 101 101
-1.0033 0.0872 18.7533 133 133 133
-0.3249 -0.9376 9.4551 122 122 122
-0.8885 0.4691 2.5311 111 111 111
-0.1293 0.9987 7.6371 139 139 139
-0.1070 0.9931 1.2863 147 147 147
-0.9071 -0.4228 11.7283 88 88 88
-0.2438 -0.9609 19.6241 91 91 91
0.9106 0.3937 14.1721 154 154 154
0.9961 -0.0648 6.3863 143 143 143
0.9112 -0.4356 12.2275 142 142 142
-0.7696 -0.6516 0.4759 147 147 147
1.0007 -0.0151 5.8655 156 156 156
1.0142 -0.1186 13.1322 131 131 131
-0.7378 0.6918 8.6296 129 129 129
-0.7031 -0.6847 5.0940 111 111 111
-0.6416 0.7302 11.0534 159 159 159
0.9605 -0.3409 16.0760 200 200 200
0.6121 0.7897 8.7049 139 139 139
0.8537 0.5515 0.4111 140 140 140
0.9490 -0.2890 7.4610 128 128 128
0.8278 0.6503 2.8431 94 94 94
-0.7706 0.7155 1.7746 154 154 154
0.7560 0.6684 11.3197 135 135 135
0.8014 0.6216 15.4383 152 152 152
0.1710 1.0077 8.8693 143 143 143
-0.7866 0.5766 0.9774 126 126 126
0.9717 0.3246 17.7986 135 135 135
0.8379 0.5488 13.3952 109 109 109
-0.9609 -0.2267 3.2089 148 148 148
0.8395 0.5652 0.6329 127 127 127
0.0903 1.0191 6.3694 116 116 116
0.9102 -0.4153 13.0429 109 109 109
0.9650 -0.2665 2.5994 156 156 156
0.9667 0.1569 10.7184 97 97 97
-0.2077 -0.9900 11.9513 124 124 124
0.9637 0.2129 2.7282 135 135 135
-0.9466 0.2628 15.1163 107 107 107
-0.7630 -0.6879 4.3054 132 132 132
0.1952 1.0028 13.0246 164 164 164
-0.6769 -0.7179 14.1013 125 125 125
-0.2556 -0.9565 4.2078 148 148 148
1.0019 0.1170 2.5654 167 167 167
-0.2391 0.9789 2.1281 116 116 116
-0.3817 -0.9304 7.3890 151 151 151
1.0227 0.1688 15.4790 102 102 102
0.4886 -0.8539 7.0081 139 139 139
-0.9806 0.0572 8.2893 127 127 127
-0.9007 -0.4110 2.0005 143 143 143
0.7767 0.6567 16.3584 178 178 178
-0.7312 -0.6626 9.1858 151 151 151
-0.9947 0.1588 6.1672 126 126 126
0.8944 0.4703 14.3884 100 100 100
0.3026 -0.9869 18.3578 94 94 94
0.2600 0.9604 11.3533 136 136 136
-0.8815 0.4614 11.1970 102 102 102
-0.4585 0.9184 2.0068 109 109 109
-0.7535 -0.6855 0.4660 155 155 155
-0.0732 0.9795 14.5287 95 95 95
-0.3033 0.9247 0.1887 135 135 135
-0.5859 -0.8370 8.6555 117 117 117
-0.0283 -0.9878 17.6926 141 141 141
-0.7065 -0.7421 12.6155 107 107 107
-0.7335 0.7139 0.7150 144 144 144
-0.6773 0.7330 2.3475 91 91 91
0.9607 0.2453 13.4585 120 120 120
0.8695 -0.4572 16.6978 105 105 105
-0.7911 -0.6522 18.7637 186 186 186
0.8893 -0.4294 0.8058 85 85 85
0.7185 -0.6696 10.2744 171 171 171
-1.0189 0.0956 7.6284 139 139 139
-0.7699 -0.5922 3.2834 150 150 150
-0.3211 0.9711 10.4322 113 113 113
0.9918 0.1012 17.5361 104 104 104
1.0086 0.2099 17.6798 141 141 141
0.1442 0.9837 1.3155 106 106 106
-0.9489 0.3526 5.8336 167 167 167
-0.0812 -0.9826 4.7030 83 83 83
0.9333 0.1743 5.6239 138 138 138
-0.9327 0.4013 17.5988 109 109 109
0.4605 -0.9295 19.5010 130 130 130
0.6992 0.7161 19.6814 139 139 139
-0.9132 -0.4472 14.7361 136 136 136
-0.8204 0.6075 9.8851 118 118 118
-0.9776 -0.1405 18.0287 141 141 141
-0.8943 -0.4652 10.4260 105 105 105
-0.2985 -0.9615 17.0946 124 124 124
0.0486 1.0083 1.7802 143 143 143
-0.9521 -0.1504 4.4964 95 95 95
0.1874 -0.9742 19.5419 133 133 133
-0.3753 0.9245 18.9752 129 129 129
-0.8780 0.5207 11.3511 177 177 177
0.9040 -0.4681 7.9226 159 159 159
0.9978 -0.0726 1.1877 69 69 69
-0.9832 -0.2470 19.7157 171 171 171
0.5629 -0.7945 1.9437 107 107 107
0.9501 0.3176 12.3712 131 131 131
0.4170 -0.8918 11.3539 152 152 152
-0.5249 -0.8277 16.5930 99 99 99
-0.2212 0.9692 18.6883 155 155 155
0.8105 0.6186 2.1952 148 148 148
-0.1416 0.9969 11.9230 103 103 103
0.9189 -0.3511 1.2179 154 154 154
0.9070 -0.4390 16.6178 126 126 126
-0.9832 -0.0073 8.5796 95 95 95
-0.6567 -0.7282 6.1055 155 155 155
-0.7606 -0.6166 6.7537 109 109 109
0.5156 0.8660 16.1472 98 98 98
1.0238 0.0514 15.6966 177 177 177
-0.9310 0.3588 5.3128 165 165 165
-0.2837 -0.9653 19.7946 166 166 166
0.2855 -0.9921 19.8405 152 152 152
0.6916 0.7105 5.6697 133 133 133
0.8288 0.5353 5.2686 90 90 90
0.8348 0.4984 14.1392 162 162 162
-0.3953 -0.8675 1.7951 157 157 157
-0.1915 0.9876 13.3068 127 127 127
0.6146 0.8468 0.2514 117 117 117
-0.4139 0.8997 9.7837 160 160 160
0.9811 0.2434 18.4866 82 82 82
-0.7758 -0.5700 16.9704 124 124 124
-0.8161 0.5619 1.3031 94 94 94
-0.5186 -0.8632 8.1474 104 104 104
0.0006 1.0071 7.3332 129 129 129
0.8339 0.5299 3.0156 138 138 138
0.9749 0.2875 10.4515 80 80 80
-0.6925 -0.6908 4.9931 130 130 130
0.9715 0.1969 2.7780 139 139 139
-0.6544 0.8072 15.6896 79 79 79
-0.9370 0.3965 5.9452 128 128 128
-0.9764 -0.3263 16.6079 133 133 133
0.6145 0.7811 10.3407 156 156 156
-0.8211 0.5060 0.2351 152 152 152
-0.2508 -0.9833 5.1719 157 157 157
-1.0432 0.1659 17.2561 120 120 120
-0.9965 0.2086 7.6763 103 103 103
-1.0157 -0.0387 10.5501 116 116 116
0.3309 -0.9378 15.9501 133 133 133
-0.7446 0.7144 8.0043 133 133 133
-0.6765 -0.6958 17.0389 179 179 179
0.1868 0.9714 10.1604 155 155 155
0.0798 0.9924 16.5594 152 152 152
0.8626 0.5375 8.1519 124 124 124
-0.9653 -0.3075 9.3134 114 114 114
-0.9546 0.2287 17.5979 142 142 142
-0.9547 -0.3038 8.7019 107 107 107
-0.2760 0.9793 13.8987 136 136 136
0.6125 -0.7451 8.7521 122 122 122
0.5407 0.8052 13.1342 92 92 92
0.7130 0.7005 9.7123 114 114 114
-0.7030 0.6892 10.2541 109 109 109
-0.7509 0.6264 6.5930 149 149 149
-0.6633 0.7147 17.2370 100 100 100
0.4693 -0.8708 0.7197 106 106 106
-0.4964 0.8502 6.2314 124 124 124
0.6002 0.7850 12.9093 106 106 106
0.9169 0.3286 10.4546 121 121 121
-0.2110 -0.9806 15.9523 101 101 101
-0.6375 -0.7229 13.9613 118 118 118
-0.9545 0.2017 11.6145 141 141 141
-0.3821 -0.9419 3.7165 69 69 69
-0.3960 0.8848 11.3320 121 121 121
0.2494 -1.0224 17.9122 114 114 114
-0.1668 -0.9723 7.3580 109 109 109
0.6474 0.7821 3.0934 83 83 83
-0.2935 0.9645 18.2919 121 121 121
1.0065 0.1194 12.3678 156 156 156
-0.9938 0.0034 1.7821 134 134 134
-1.0262 0.1073 12.3125 146 146 146
-0.8393 0.4289 7.3601 107 107 107
0.6306 -0.7656 19.3045 152 152 152
0.4168 0.9001 10.7800 115 115 115
0.3779 0.9280 9.9416 112 112 112
-0.8647 -0.5390 17.4634 126 126 126
-0.8625 -0.5101 11.0595 145 145 145
-0.9269 0.3921 6.3546 122 122 122
-0.2889 0.9694 18.4263 132 132 132
-0.3638 -0.9741 1.3188 133 133 133
0.2722 -0.9909 4.0323 143 143 143
0.8896 -0.4702 7.7960 135 135 135
-0.8972 -0.4034 1.7900 88 88 88
0.8469 0.5132 1.3065 148 148 148
0.2069 0.9566 1.0504 140 140 140
-0.7572 0.6205 19.4740 121 121 121
0.6184 -0.7677 4.6134 123 123 123
-1.0339 0.0481 13.9745 133 133 133
-0.8766 0.5103 7.6382 127 127 127
0.8786 -0.4710 8.4053 109 109 109
-0.8287 -0.5635 16.7401 107 107 107
-0.2211 0.9630 19.7259 112 112 112
-0.2593 -0.9535 14.3469 162 162 162
0.9595 0.1807 0.9636 122 122 122
-0.9788 -0.2703 14.0724 114 114 114
0.8844 0.4890 5.1274 117 117 117
-0.3240 -0.9848 10.8957 120 120 120
-0.4123 -0.9058 16.5018 119 119 119
-0.1658 0.9959 0.8496 131 131 131
-0.6657 -0.7588 17.2804 113 113 113
1.0125 -0.0396 0.1445 153 153 153
-0.0041 -1.0372 16.5596 111 111 111
-0.1488 0.9852 13.2961 122 122 122
-0.6404 0.7731 7.1395 152 152 152
-0.4966 0.8214 3.0750 99 99 99
-0.0742 1.0187 9.8852 84 84 84
0.2592 0.9549 17.8138 111 111 111
-0.2956 0.9708 11.4660 135 135 135
-0.9173 0.4102 0.2221 135 135 135
-0.0265 1.0203 12.2368 170 170 170
0.7480 0.7188 3.1122 93 93 93
0.7741 -0.6286 6.9663 132 132 132
0.9227 0.3963 1.3083 139 139 139
0.2519 0.9868 14.3417 165 165 165
-0.7689 -0.6569 11.0198 145 145 145
0.8776 -0.4917 3.1494 113 113 113
0.6665 -0.7491 13.8213 115 115 115
0.8523 -0.5618 7.6039 164 164 164
0.7779 0.6316 3.1392 125 125 125
-0.2021 -0.9893 8.9164 120 120 120
1.0480 0.1117 5.1079 88 88 88
-0.9213 0.3782 5.1274 96 96 96
-0.8956 -0.3917 18.8520 97 97 97
-0.3218 0.9523 13.3937 157 157 157
0.1624 -1.0009 15.2952 91 91 91
-0.9821 0.1934 6.1515 104 104 104
-0.3957 -0.9220 15.0465 107 107 107
-0.9776 -0.1299 9.4537 135 135 135
-0.9751 0.2432 17.4732 83 83 83
1.0077 0.0009 3.9353 148 148 148
-0.7039 0.6813 19.6074 112 112 112
-0.1162 0.9864 14.8300 142 142 142
0.1322 0.9998 16.5394 166 166 166
0.9374 -0.3491 6.3479 118 118 118
0.4542 0.8930 8.5448 137 137 137
0.8689 -0.4653 3.0206 162 162 162
0.9388 0.2663 5.5978 141 141 141
0.6167 0.7854 14.8505 99 99 99
0.0250 -0.9859 2.5727 99 99 99
1.0009 0.2506 7.9351 102 102 102
0.6016 -0.8058 9.0519 103 103 103
0.9009 0.3584 5.8916 127 127 127
0.4612 -0.9005 9.3424 131 131 131
0.9238 -0.3648 8.3150 135 135 135
-0.3279 -0.9330 2.4059 97 97 97
0.5756 0.8068 5.6026 161 161 161
-0.5823 -0.8130 18.5060 94 94 94
0.5181 0.8585 10.8671 103 103 103
0.3806 -0.9278 2.0034 136 136 136
0.6161 0.7909 12.3859 158 158 158
0.8708 -0.5004 14.3420 96 96 96
0.3064 -0.9366 6.0929 145 145 145
-0.8684 -0.4816 17.5156 133 133 133
0.4306 0.9204 1.5098 102 102 102
-0.9769 0.2391 15.7150 99 99 99
0.0558 1.0140 17.3126 166 166 166
0.8205 0.5065 15.1735 169 169 169
0.9204 -0.4684 1.8674 124 124 124
-0.9370 0.3849 11.2306 138 138 138
-0.5374 -0.8648 18.1326 176 176 176
0.4117 -0.8674 19.6969 125 125 125
0.2801 -0.9450 4.2322 130 130 130
0.8826 -0.4467 0.3939 189 189 189
0.8752 0.5073 1.5336 141 141 141
1.0151 -0.0613 11.4207 148 148 148
-0.7821 -0.5792 2.3091 106 106 106
-0.8598 0.5044 3.5253 180 180 180
0.7893 -0.6378 7.3715 152 152 152
0.4452 -0.9027 19.5613 64 64 64
0.6142 0.8340 8.9641 175 175 175
-0.8730 -0.4614 18.8207 137 137 137
0.3631 -0.9379 0.6851 159 159 159
-0.0884 1.0041 12.5748 128 128 128
0.0291 -1.0070 15.0107 115 115 115
-0.9758 0.0080 3.3940 152 152 152
0.5474 -0.8473 17.3777 117 117 117
0.9935 0.0283 14.9973 110 110 110
0.7445 -0.6668 2.3743 89 89 89
-0.2704 0.9252 13.2447 144 144 144
-0.4778 -0.8614 17.5360 178 178 178
-0.6838 -0.7147 12.1333 100 100 100
-0.9538 0.3604 4.2013 133 133 133
-0.3604 -0.9325 5.1901 104 104 104
1.0428 0.0510 2.4822 126 126 126
0.8405 -0.5418 0.4981 129 129 129
0.7642 0.6175 1.7396 129 129 129
-0.9837 -0.0540 0.4346 115 115 115
-0.7557 -0.6974 10.8946 152 152 152
0.7223 -0.6828 17.9936 167 167 167
-0.0537 -1.0242 17.6873 113 113 113
-0.1503 -1.0229 1.0760 141 141 141
0.9665 -0.3355 4.8414 135 135 135
-0.5053 -0.8570 14.7986 124 124 124
0.8940 -0.4515 13.6579 147 147 147
-0.4443 -0.9291 1.2298 124 124 124
-0.0556 0.9892 15.2887 118 118 118
0.8970 0.3770 18.8298 128 128 128
-0.2194 -0.9823 0.8741 104 104 104
-0.9147 -0.3820 3.1945 120 120 120
1.0016 0.1375 1.3848 132 132 132
0.8441 0.5071 13.9357 140 140 140
0.4367 -0.9269 9.3116 121 121 121
-0.1638 0.9818 3.7719 156 156 156
0.5102 -0.8469 13.3148 125 125 125
0.9326 0.3911 16.0219 144 144 144
0.0260 -0.9923 8.2775 68 68 68
-0.9407 -0.3864 12.5746 145 145 145
-0.4016 0.9118 2.1440 103 103 103
-0.9759 -0.1861 12.3009 142 142 142
0.9707 0.1259 13.6907 140 140 140
0.4209 -0.9217 0.8282 159 159 159
0.4472 -0.9101 0.6108 132 132 132
0.9075 0.4122 19.6141 125 125 125
-0.8816 0.4559 2.3515 95 95 95
0.3689 -0.9516 6.4393 100 100 100
0.3521 -0.9403 15.5080 127 127 127
-0.9965 0.1217 5.2387 100 100 100
0.9563 0.2422 12.1678 120 120 120
0.6867 0.7299 11.4346 113 113 113
-0.9774 0.0591 3.6710 149 149 149
0.9677 0.1301 6.9858 114 114 114
0.7846 0.6166 4.3026 139 139 139
-0.3446 -0.9476 14.7182 131 131 131
1.0108 -0.0232 2.3468 136 136 136
-0.3817 -0.9156 6.2163 90 90 90
0.2475 0.9705 6.2449 128 128 128
-0.9953 0.1582 7.1206 170 170 170
0.2822 -0.9488 19.4648 95 95 95
0.9936 0.2405 13.9159 87 87 87
-0.3731 0.9212 16.9435 98 98 98
0.8742 0.4543 13.8342 164 164 164
0.8942 0.4940 12.4544 163 163 163
1.0025 -0.1168 2.4817 74 74 74
0.9689 0.2731 0.6463 98 98 98
-0.1175 -0.9615 18.0350 137 137 137
0.5745 0.8024 12.3060 132 132 132
-0.6758 -0.7128 9.6269 107 107 107
0.2972 -0.9327 10.3946 105 105 105
0.3689 -0.9443 18.2008 152 152 152
0.6510 0.7382 18.2965 111 111 111
-0.7796 0.6653 17.8379 97 97 97
-0.5312 -0.8537 1.5073 89 89 89
-0.8078 -0.6335 10.7359 142 142 142
-0.9343 0.3682 3.7770 125 125 125
-0.8726 -0.4553 11.8840 196 196 196
0.8717 0.4789 17.5198 154 154 154
-0.9727 -0.0886 18.7711 120 120 120
-0.9377 -0.3850 12.5251 128 128 128
-0.8000 -0.6086 9.3092 183 183 183
-0.9885 -0.2008 16.5178 154 154 154
0.5679 0.8638 14.1484 158 158 158
-0.9608 -0.2853 0.4354 139 139 139
0.5911 0.8335 7.8251 115 115 115
-0.2604 -0.9847 6.8084 129 129 129
-0.1662 0.9658 15.4112 110 110 110
-0.3991 0.9405 6.0292 139 139 139
-0.8358 -0.5111 3.5621 173 173 173
-0.3638 0.9069 9.1248 114 114 114
-0.1681 -0.9504 15.5797 112 112 112
-0.2994 -0.9606 13.9302 82 82 82
0.0989 -0.9901 10.4940 129 129 129
0.9685 0.1971 18.6713 142 142 142
0.7767 -0.6692 14.7539 109 109 109
0.4699 -0.8943 12.3259 143 143 143
-0.6812 0.7170 15.0171 72 72 72
0.5099 0.8986 3.6815 112 112 112
0.9192 0.3493 19.9220 175 175 175
0.4881 -0.8472 6.3314 162 162 162
-0.9969 -0.1521 2.5629 97 97 97
0.1607 0.9624 6.7003 132 132 132
0.0949 1.0064 15.3072 150 150 150
-0.8270 -0.5671 13.9465 148 148 148
0.5652 -0.8272 18.4164 133 133 133
-0.6848 0.7301 14.2522 133 133 133
0.9808 -0.2761 2.7119 133 133 133
0.8318 -0.5785 11.2666 159 159 159
-0.8335 0.5488 6.8605 98 98 98
0.8821 0.4522 1.6716 154 154 154
-1.0047 -0.0713 14.5786 74 74 74
-0.9893 0.2192 12.0637 125 125 125
-0.8052 0.6529 9.4776 132 132 132
-0.9869 -0.0394 1.2971 119 119 119
0.3038 -0.9475 7.3405 94 94 94
0.2245 -0.9673 16.6245 168 168 168
-0.4211 -0.8963 10.1012 118 118 118
-0.3383 -0.9083 9.7298 91 91 91
-0.9249 -0.3309 8.0320 137 137 137
0.8230 0.5241 3.6568 116 116 116
0.3264 -0.9535 3.6328 130 130 130
0.5317 0.8763 3.9024 140 140 140
-0.8806 0.4727 5.1537 106 106 106
-0.1403 -1.0084 17.1262 139 139 139
0.0999 1.0050 8.1296 115 115 115
-0.3336 0.9301 9.6951 118 118 118
-0.4682 0.9087 2.4332 148 148 148
-0.9383 0.4240 1.4499 86 86 86
-0.1425 0.9825 0.6505 129 129 129
-0.5078 0.8532 1.1422 178 178 178
0.2510 0.9598 12.1455 119 119 119
-0.8197 0.5873 1.8932 152 152 152
0.6776 -0.7339 6.4756 150 150 150
0.7034 -0.7112 9.7087 134 134 134
0.9933 0.0988 9.4282 129 129 129
-0.5527 -0.8402 15.9765 149 149 149
-0.2693 0.9899 2.8906 128 128 128
-0.6773 0.7127 4.6628 96 96 96
0.8306 0.5617 11.9944 188 188 188
0.9671 0.2031 4.1536 155 155 155
0.8479 -0.4761 3.1100 108 108 108
0.6819 -0.7400 11.3016 100 100 100
0.9759 -0.2884 3.9303 132 132 132
-0.4591 -0.8883 4.5918 122 122 122
-0.4076 0.8919 6.3468 77 77 77
0.6525 0.7468 0.5003 76 76 76
-0.7669 -0.6357 1.0299 148 148 148
0.1523 -0.9617 18.3981 126 126 126
-0.2731 -0.9660 5.1711 122 122 122
1.0029 -0.1060 12.6945 118 118 118
0.5188 0.8590 13.4797 152 152 152
0.5932 -0.8307 2.9038 152 152 152
-0.9712 0.2007 11.2039 110 110 110
1.0015 -0.1194 6.4862 129 129 129
-0.4734 -0.8821 3.0234 135 135 135
0.7455 0.6996 5.4114 130 130 130
1.0321 0.0040 7.0217 122 122 122
0.8866 -0.4522 18.0360 143 143 143
-0.8558 -0.4921 8.1506 130 130 130
0.8941 -0.3831 2.6378 141 141 141
0.1808 -0.9575 3.2821 106 106 106
0.6931 0.7430 14.0452 130 130 130
-0.0411 -1.0214 9.5714 122 122 122
0.9206 -0.3613 8.7767 106 106 106
-0.5679 -0.8298 13.0860 159 159 159
-0.5344 -0.8395 17.6261 149 149 149
0.9522 0.2273 2.2866 112 112 112
0.3837 -0.9185 1.1103 129 129 129
0.8157 0.5491 19.8308 148 148 148
0.9235 -0.3994 13.9316 103 103 103
0.5212 0.8542 19.6477 120 120 120
0.1684 0.9885 18.6101 130 130 130
0.9455 -0.3202 0.0474 142 142 142
0.9273 -0.3457 4.0095 111 111 111
-0.3571 0.9473 5.0959 146 146 146
-0.9341 0.2817 17.9237 93 93 93
-0.7620 -0.6706 16.9972 140 140 140
-0.7893 -0.6641 2.2547 149 149 149
-0.9635 0.2433 11.3794 139 139 139
-0.7346 0.6494 18.6841 123 123 123
1.0052 -0.0276 18.1256 157 157 157
-0.2089 0.9483 8.9890 180 180 180
-0.9771 0.2183 14.3570 169 169 169
0.9456 0.3962 10.0446 96 96 96
1.0082 -0.0007 19.1386 147 147 147
-0.9030 -0.3452 14.9394 166 166 166
-0.4388 0.8994 14.4029 101 101 101
0.8576 -0.5327 5.0402 98 98 98
0.8809 0.5098 1.6114 145 145 145
-0.3689 0.9009 2.7192 59 59 59
-0.2335 0.9660 16.8374 126 126 126
0.9078 -0.4780 1.3573 140 140 140
-0.1169 1.0135 13.7223 124 124 124
0.9037 -0.3904 4.5453 143 143 143
-0.9652 0.1462 2.2216 118 118 118
0.1263 -0.9577 16.3880 122 122 122
-0.0342 -1.0215 6.2181 151 151 151
-0.8342 0.5663 12.3038 140 140 140
0.9428 -0.3573 12.8978 125 125 125
-0.4667 -0.8808 13.2398 124 124 124
-0.4090 0.9107 2.7310 83 83 83
-0.1650 0.9791 0.0084 157 157 157
0.1338 -1.0020 2.0625 124 124 124
0.3148 -0.9451 14.4753 123 123 123
0.1255 -0.9592 0.5254 161 161 161
0.5348 0.8489 11.3184 147 147 147
-0.9269 -0.4400 13.4441 134 134 134
0.2680 -0.9454 3.6540 154 154 154
-1.0097 -0.1731 3.7404 158 158 158
-0.8501 0.5456 4.8995 102 102 102
0.7332 0.6985 13.7669 150 150 150
0.5997 0.8197 14.4073 123 123 123
0.3743 0.8988 12.3102 147 147 147
0.5243 0.8388 2.7411 128 128 128
-1.0269 -0.0350 0.3282 167 167 167
0.4006 -0.8878 15.0562 126 126 126
-0.4515 0.8667 4.2853 110 110 110
0.3546 0.8971 17.8431 125 125 125
1.0192 0.0131 0.4811 112 112 112
1.0194 -0.1593 19.7253 106 106 106
-0.8892 -0.4370 12.0698 171 171 171
-0.1181 0.9996 7.2503 107 107 107
0.9803 -0.0839 11.0648 112 112 112
0.9980 0.0601 11.5574 100 100 100
0.9728 0.2920 5.2861 106 106 106
0.6959 0.7195 19.3406 93 93 93
0.2625 0.9699 16.2218 140 140 140
0.0467 0.9809 1.3545 147 147 147
-1.0010 -0.1414 17.3683 104 104 104
-0.8070 -0.6156 14.6156 144 144 144
-0.2955 0.9481 17.6550 81 81 81
0.9273 -0.3681 5.6924 119 119 119
0.1961 -0.9751 3.0078 139 139 139
0.2932 -0.9759 18.8303 108 108 108
0.7766 0.6434 8.3283 155 155 155
-0.9303 0.3211 9.5540 153 153 153
0.2002 0.9560 14.0409 111 111 111
-0.3951 -0.9103 17.8865 140 140 140
0.5347 -0.8131 3.4869 112 112 112
0.9507 0.2040 0.0965 109 109 109
0.2685 -0.9791 16.3218 91 91 91
-0.2719 1.0039 4.9568 141 141 141
1.0055 -0.2565 7.0821 118 118 118
-0.1906 -0.9652 9.0286 121 121 121
0.8967 0.5041 18.7552 124 124 124
-0.7780 -0.6680 2.3252 136 136 136
0.4924 0.8265 4.1372 142 142 142
0.9200 0.3435 15.1892 109 109 109
-0.8018 0.6083 15.6506 141 141 141
-0.1013 0.9719 16.9918 137 137 137
-0.8869 -0.5138 15.3679 109 109 109
0.0882 -0.9831 0.0681 84 84 84
0.8823 0.4541 18.7897 104 104 104
0.3396 0.9238 12.6829 122 122 122
0.5725 -0.8375 8.6372 124 124 124
0.7695 -0.6015 2.3831 125 125 125
0.9916 0.1934 2.9188 134 134 134
-0.1531 -0.9948 9.9105 114 114 114
0.0116 -1.0136 6.6498 69 69 69
0.2016 1.0110 18.3378 102 102 102
0.0703 -0.9824 6.1735 136 136 136
0.4724 0.8565 6.5150 65 65 65
-0.0185 1.0191 9.5189 185 185 185
-1.0082 0.0436 11.7854 110 110 110
0.6520 0.7526 6.9946 93 93 93
-0.9063 -0.3838 8.0345 114 114 114
-0.9229 -0.4430 17.6917 115 115 115
-0.9755 -0.0087 7.3330 117 117 117
-0.1334 -0.9792 16.2392 158 158 158
0.3948 -0.9209 0.7921 112 112 112
0.3092 -0.9406 0.6564 155 155 155
-0.3998 -0.9332 12.6507 128 128 128
-0.2447 0.9835 16.6820 74 74 74
0.6148 -0.7800 19.3495 149 149 149
1.0215 0.0786 18.5241 97 97 97
0.9902 -0.2136 7.1152 119 119 119
-0.4447 -0.8639 17.3932 109 109 109
0.5106 0.8482 18.4467 100 100 100
-0.5789 -0.7826 9.6499 122 122 122
-0.2126 1.0164 16.4443 122 122 122
-0.6392 -0.7701 9.1704 106 106 106
-0.7394 0.7027 8.9744 104 104 104
0.7334 0.7388 5.3710 92 92 92
0.6914 -0.7706 1.0627 102 102 102
0.6705 -0.7841 14.6294 165 165 165
0.8999 -0.3463 9.5178 147 147 147
0.9667 0.1962 0.3606 121 121 121
-0.8737 -0.4597 12.7409 115 115 115
0.9792 0.1681 19.3594 100 100 100
1.0055 -0.1464 1.5957 129 129 129
-0.7758 0.6846 6.7142 150 150 150
-0.3241 -0.9377 4.5370 149 149 149
-0.9394 -0.2406 15.0195 169 169 169
-0.3563 -0.9103 1.6161 95 95 95
-0.8701 0.5668 6.7698 133 133 133
0.2405 0.9394 8.8916 126 126 126
0.8579 0.5444 5.2850 119 119 119
0.1866 -0.9357 1.7934 105 105 105
0.9854 -0.1446 7.1941 133 133 133
0.5464 -0.8564 8.0168 111 111 111
-0.2314 -0.9686 13.2533 127 127 127
0.7083 -0.7046 3.1099 84 84 84
-0.7745 -0.6038 6.3486 140 140 140
0.1487 -0.9737 3.3125 139 139 139
0.2118 -0.9775 5.4034 93 93 93
0.9748 -0.1921 0.2044 124 124 124
0.6062 -0.8149 9.9082 108 108 108
-0.6782 -0.7203 1.8053 134 134 134
-0.7157 0.7216 1.9075 133 133 133
-0.8953 -0.2842 17.7195 114 114 114
-0.9872 0.2321 4.9397 101 101 101
-0.0328 -1.0202 5.1547 106 106 106
-0.9855 -0.0647 1.9228 110 110 110
0.8278 -0.5069 14.6616 114 114 114
-0.9843 0.0102 11.8894 115 115 115
0.4504 0.8956 6.7241 86 86 86
1.0038 0.2787 16.5187 130 130 130
0.7521 0.6185 10.1911 109 109 109
0.8577 0.5053 4.3240 104 104 104
0.5609 -0.7771 8.8528 93 93 93
0.6762 -0.7747 16.3926 143 143 143
-0.3774 0.9426 6.7743 90 90 90
0.9246 0.3808 5.1042 119 119 119
-0.2180 0.9628 6.7912 127 127 127
0.6130 -0.7702 17.5627 175 175 175
0.0514 -0.9616 6.7796 172 172 172
-0.4219 -0.9477 6.3744 110 110 110
-0.8401 -0.5403 12.5044 159 159 159
-0.0033 1.0143 10.2797 125 125 125
-0.0924 -1.0188 5.9181 112 112 112
-0.9453 -0.1996 1.0264 98 98 98
-0.2624 0.9619 18.2155 154 154 154
-0.5324 0.8388 12.5964 116 116 116
-0.1541 0.9860 3.3159 106 106 106
0.9932 0.2090 12.4201 142 142 142
0.9574 0.1713 14.1527 89 89 89
0.9974 -0.0694 4.3550 154 154 154
0.9831 0.0084 17.6558 86 86 86
1.0029 0.0544 10.4620 151 151 151
0.3137 0.9711 13.4850 68 68 68
-0.6941 0.7449 7.4237 104 104 104
-0.9967 -0.0974 19.9686 110 110 110
-0.8468 -0.5782 2.3628 168 168 168
0.9882 0.1294 4.3999 119 119 119
-0.9673 0.0130 11.9271 153 153 153
0.5545 0.8197 5.3401 149 149 149
1.0091 0.1272 15.6390 151 151 151
0.8265 -0.5031 0.8570 141 141 141
-0.9007 0.4489 1.0402 187 187 187
-0.9312 0.3372 8.8207 110 110 110
0.4386 0.8730 9.6905 101 101 101
-0.6791 -0.7467 4.3529 70 70 70
0.4574 -0.8921 19.1517 178 178 178
-0.8337 0.5641 1.2259 96 96 96
-0.3207 0.9521 17.9016 128 128 128
0.9905 -0.0717 16.4390 126 126 126
-0.9451 -0.3353 9.3660 131 131 131
-0.8347 0.5270 1.5751 111 111 111
0.0655 0.9850 5.9120 135 135 135
-0.7407 -0.6863 17.4922 112 112 112
-0.8403 0.5113 0.0904 139 139 139
0.1890 0.9738 10.2849 118 118 118
-0.9937 -0.1775 12.8825 147 147 147
-0.9325 0.4354 17.7128 111 111 111
-0.9484 0.1196 0.5602 187 187 187
0.8663 0.4598 11.6524 158 158 158
-0.1004 -1.0186 12.5493 130 130 130
-0.1342 1.0291 12.4970 120 120 120
-0.4085 -0.9435 0.7009 108 108 108
-0.1289 0.9779 3.1533 123 123 123
0.5000 0.8427 0.1012 85 85 85
-0.6041 0.7847 13.8325 134 134 134
0.5828 -0.7851 18.4830 134 134 134
-0.0548 -0.9871 5.4296 142 142 142
-0.5511 0.8436 4.2492 141 141 141
0.4479 0.8771 5.7089 142 142 142
-0.4950 -0.8788 18.0621 113 113 113
-0.4816 0.8753 3.3832 122 122 122
-0.2515 -0.9632 19.1984 156 156 156
-0.8464 -0.5883 16.8855 70 70 70
0.0671 -0.9635 8.6115 136 136 136
0.5552 0.8034 5.7033 161 161 161
-0.0435 1.0193 7.5275 154 154 154
-0.8715 -0.4614 5.7352 127 127 127
-0.6178 -0.7907 10.5507 108 108 108
-0.5309 -0.8436 15.2393 128 128 128
-0.0080 1.0172 7.9740 132 132 132
0.8267 -0.5840 0.0646 144 144 144
0.5689 -0.8496 17.1066 113 113 113
0.7323 0.6816 16.1492 125 125 125
-0.4771 0.8824 18.9890 100 100 100
0.9734 -0.1201 19.8216 139 139 139
0.9193 0.4042 13.6834 122 122 122
-0.5714 0.8493 17.9705 154 154 154
-0.3917 0.8968 1.4106 160 160 160
-0.0647 -0.9641 8.3221 150 150 150
-0.1744 0.9752 19.1449 126 126 126
0.9808 0.0852 17.2409 127 127 127
0.4634 -0.8807 19.7080 126 126 126
-0.3200 0.9470 5.7607 147 147 147
0.4897 0.8779 9.2965 125 125 125
0.1898 -0.9610 18.5942 152 152 152
-0.9526 -0.2523 16.1990 97 97 97
-0.6673 0.7626 8.7911 162 162 162
-0.0854 1.0056 11.5900 84 84 84
-0.3365 -0.9348 1.3283 134 134 134
-0.9995 -0.2082 4.4370 140 140 140
-0.3508 0.9413 5.7027 156 156 156
-0.6395 0.7932 11.0825 103 103 103
-0.7949 0.5658 10.6051 175 175 175
-0.3847 0.9326 16.6250 157 157 157
0.9975 -0.1626 9.4933 139 139 139
-0.1590 0.9963 8.7517 113 113 113
-0.4931 0.8711 4.1708 148 148 148
-0.2404 -0.9731 2.1183 108 108 108
0.1623 -0.9853 6.1427 129 129 129
-0.9493 -0.1772 17.4205 110 110 110
-0.0433 1.0036 4.9853 97 97 97
-0.7500 -0.6378 7.0462 166 166 166
-0.8231 -0.5699 8.4259 150 150 150
-0.8955 -0.5086 11.2680 126 126 126
-0.7129 -0.6710 3.4970 120 120 120
-0.7486 0.5884 12.1711 95 95 95
0.3987 0.8840 12.1379 117 117 117
-0.8868 0.4455 10.7177 102 102 102
0.0853 -1.0251 6.0472 137 137 137
-0.4002 -0.9640 9.1422 141 141 141
0.6364 -0.7480 1.2284 139 139 139
0.9290 0.3028 19.3682 130 130 130
-0.9235 0.4373 19.1297 122 122 122
-0.9972 0.0219 7.7348 133 133 133
0.0628 -0.9999 9.3586 144 144 144
-0.6045 -0.8144 8.3352 117 117 117
0.1528 0.9906 0.9753 113 113 113
-1.0377 -0.0392 12.8713 123 123 123
0.0184 -0.9966 4.9717 109 109 109
-0.2042 0.9870 6.5878 135 135 135
-0.1488 0.9631 10.5401 125 125 125
-0.8680 -0.4431 19.0143 99 99 99
-0.7936 -0.6011 4.9530 131 131 131
-0.1302 -0.9812 16.9018 128 128 128
-0.7153 0.6759 9.9289 152 152 152
0.0130 1.0220 12.4848 106 106 106
0.7026 -0.7298 11.8049 161 161 161
0.0836 1.0075 0.4989 92 92 92
-0.9965 0.0184 9.8938 153 153 153
0.2295 0.9741 11.0689 123 123 123
0.8778 -0.4888 9.2961 110 110 110
-0.9720 -0.2477 16.4131 134 134 134
0.4181 0.8904 2.1359 113 113 113
-0.8002 -0.5694 4.2005 129 129 129
-0.8908 -0.4142 12.2078 147 147 147
0.9490 -0.3553 3.7713 123 123 123
0.1372 -0.9904 4.3865 124 124 124
-0.3948 -0.8907 13.2466 81 81 81
0.1353 0.9931 2.1452 125 125 125
0.4302 0.8689 6.6856 108 108 108
-0.1084 -1.0131 8.9053 115 115 115
-0.8560 -0.5565 16.3124 131 131 131
0.3510 0.9690 4.8273 127 127 127
-0.9761 -0.1117 18.2485 149 149 149
0.8420 0.5836 6.5617 146 146 146
0.7489 -0.7065 12.7126 111 111 111
0.0020 0.9732 3.0335 129 129 129
-0.1093 -0.9979 13.7022 174 174 174
-0.6243 0.8195 10.5660 145 145 145
1.0089 0.0333 15.5326 110 110 110
0.4864 0.8897 14.6683 137 137 137
-0.6729 -0.7312 2.4923 124 124 124
0.9915 0.2374 11.6560 142 142 142
0.9784 -0.1145 12.9963 148 148 148
0.9757 0.0591 13.5025 109 109 109
-0.2515 -0.9968 3.6961 168 168 168
0.5806 0.8252 15.3519 85 85 85
-0.9530 -0.3830 2.7274 101 101 101
-0.5810 -0.7936 9.3639 150 150 150
0.8923 0.4350 19.5526 123 123 123
0.1945 0.9883 13.4098 122 122 122
0.6839 0.7387 18.4201 101 101 101
-0.5142 -0.8560 10.9297 177 177 177
-0.7994 0.6050 12.8701 162 162 162
0.9849 0.2058 18.6871 135 135 135
-0.7526 -0.6454 7.8476 71 71 71
0.0639 0.9942 3.4727 112 112 112
-1.0289 -0.0939 11.6501 65 65 65
0.8645 0.5317 7.4319 123 123 123
-0.5637 -0.8579 16.9132 191 191 191
-0.2977 -0.9397 5.4187 117 117 117
-0.5781 0.7935 14.3484 125 125 125
-0.7945 -0.6190 9.5194 138 138 138
-0.9894 0.2065 3.0347 145 145 145
-0.5099 -0.8584 6.8217 147 147 147
-0.0897 -0.9929 10.2738 151 151 151
0.5591 -0.8448 10.6867 122 122 122
0.9871 0.1484 1.5758 153 153 153
-0.9221 0.4705 10.8018 129 129 129
-1.0034 0.3048 12.9544 116 116 116
0.0960 0.9848 5.9293 114 114 114
0.9983 -0.1141 10.7773 110 110 110
-0.9764 -0.1439 19.9045 164 164 164
0.4500 -0.8975 3.4990 100 100 100
-0.1974 -1.0096 1.3924 137 137 137
-0.0140 -0.9930 12.6630 153 153 153
0.8630 -0.5272 5.6738 130 130 130
0.8604 0.5559 19.5640 154 154 154
0.0379 -0.9665 8.7495 136 136 136
-0.4754 0.9181 5.7967 117 117 117
0.8319 0.5557 15.5675 133 133 133
-0.8709 0.4711 7.0039 170 170 170
-0.5267 0.8294 0.7444 137 137 137
0.1203 -1.0291 5.1284 131 131 131
-0.3372 -0.9094 17.1094 150 150 150
-0.2474 -1.0003 2.3768 100 100 100
0.1736 0.9873 13.9124 129 129 129
0.9987 0.1647 14.9922 100 100 100
0.6065 -0.7953 11.7281 111 111 111
-0.4365 0.9015 12.5203 136 136 136
-0.9270 0.2215 18.9096 127 127 127
0.9439 -0.2621 9.9287 161 161 161
0.3478 0.9275 10.8755 156 156 156
-0.9335 -0.3316 15.9437 136 136 136
-0.0987 0.9809 10.2987 88 88 88
0.9166 -0.4917 18.9243 144 144 144
-0.3672 -0.9140 14.7608 142 142 142
-0.8397 -0.5544 17.4932 143 143 143
0.7149 0.7040 18.0698 148 148 148
-0.5977 -0.8148 8.9014 156 156 156
0.9366 -0.3789 3.1924 158 158 158
0.6195 -0.7420 6.7115 145 145 145
0.0676 1.0045 6.9056 135 135 135
-0.9468 0.2329 13.4784 124 124 124
-0.0380 0.9990 14.1246 125 125 125
0.1152 -1.0216 9.0799 136 136 136
-0.4620 0.9004 5.3372 140 140 140
-0.7932 0.5718 19.6977 149 149 149
0.4607 -0.9050 13.2415 120 120 120
0.7748 -0.6110 7.2772 89 89 89
-0.9942 0.2146 14.3595 133 133 133
-0.9220 -0.4678 13.1769 152 152 152
-0.8902 -0.4037 4.7440 155 155 155
-0.9597 -0.3073 8.8708 84 84 84
0.6840 0.7744 0.0304 114 114 114
0.9912 0.0830 2.3292 112 112 112
-0.3393 0.9496 3.8219 127 127 127
0.9932 0.0646 18.6418 157 157 157
0.6806 -0.7741 11.7967 177 177 177
0.2540 -0.9535 13.0874 169 169 169
0.4273 0.9128 14.4133 78 78 78
0.4110 -0.9081 16.4622 96 96 96
0.6986 -0.7372 15.0629 108 108 108
-0.6436 0.7665 3.6203 117 117 117
-0.3289 0.9695 4.2426 139 139 139
0.3342 -0.9990 18.9551 175 175 175
0.4615 0.8453 17.2997 143 143 143
0.3565 0.9305 8.0992 131 131 131
0.9989 -0.0396 16.5689 121 121 121
0.5354 -0.8527 7.0422 148 148 148
-0.3714 0.9327 4.7437 148 148 148
0.7774 0.6330 3.7579 138 138 138
0.8031 0.5986 16.0426 154 154 154
-0.4024 0.9397 17.3958 90 90 90
0.0056 -0.9729 17.9866 126 126 126
0.3323 0.9617 9.6087 144 144 144
0.4343 0.8614 18.5970 172 172 172
-0.6837 0.7477 17.1231 96 96 96
0.8755 -0.4029 12.7598 108 108 108
0.9952 -0.0934 1.1578 137 137 137
-0.6724 0.7499 10.5544 153 153 153
-0.9199 0.4146 7.8100 161 161 161
-0.9785 0.0055 6.5069 132 132 132
-0.2239 -0.9918 0.0850 129 129 129
-0.5011 -0.8657 1.9994 147 147 147
-0.7822 0.6392 11.2000 120 120 120
0.6695 0.7364 0.9828 175 175 175
0.5944 -0.8164 1.8717 134 134 134
